138.797, 87.1953, -453.068, 7, 0, 0
133.692, 84.1389, -437.221, 7, 0, 0
152.238, 95.7498, -500.277, 6, 0, 0
140.397, 87.7007, -458.522, 7, 0, 0
134.866, 84.3819, -441.211, 7, 0, 0
151.442, 94.7205, -497.618, 6, 0, 0
140.32, 87.1432, -458.178, 7, 0, 0
134.886, 83.8953, -441.173, 7, 0, 0
152.205, 94.6947, -500.292, 6, 0, 0
142.209, 87.8841, -464.668, 7, 0, 0
137.027, 84.8159, -448.519, 7, 0, 0
103.061, 49.9173, -267.41, 5, 0, 0
152.314, 94.203, -500.715, 6, 0, 0
149.758, 92.7832, -493.275, 6, 0, 0
138.862, 85.4964, -454.856, 7, 0, 0
103.486, 49.753, -267.805, 5, 0, 0
151.842, 93.3571, -499.146, 6, 0, 0
149.633, 92.1601, -492.905, 6, 0, 0
139.312, 85.2845, -456.441, 7, 0, 0
104.632, 50.0185, -270.79, 5, 0, 0
150.886, 92.4394, -497.287, 6, 0, 0
140.862, 85.79, -461.84, 7, 0, 0
106.135, 50.2447, -273.862, 5, 0, 0
149.148, 90.784, -491.381, 6, 0, 0
140.357, 84.9525, -460.112, 7, 0, 0
138.401, 83.982, -455.073, 7, 0, 0
107.747, 50.4927, -277.099, 5, 0, 0
108.49, 51.0744, -280.038, 5, 0, 0
146.079, 88.2902, -480.826, 6, 0, 0
138.157, 83.0441, -452.48, 7, 0, 0
136.785, 82.4527, -449.43, 7, 0, 0
110.197, 51.27, -283.397, 5, 0, 0
145.742, 87.5822, -479.676, 6, 0, 0
138.158, 82.583, -452.483, 7, 0, 0
137.097, 82.2033, -450.493, 7, 0, 0
106.552, 48.4983, -270.823, 6, 0, 0
145.232, 86.7919, -478.004, 6, 0, 0
138.231, 82.1783, -452.825, 7, 0, 0
137.222, 81.8468, -451.001, 7, 0, 0
107.844, 48.4238, -272.966, 6, 0, 0
142.359, 84.5406, -468.313, 6, 0, 0
136.864, 80.8665, -448.221, 7, 0, 0
135.791, 80.5056, -446.133, 7, 0, 0
111.022, 49.3638, -281.164, 5, 0, 0
106.886, 47.2873, -269.083, 6, 0, 0
141.185, 83.344, -464.378, 6, 0, 0
136.938, 80.4488, -448.522, 7, 0, 0
136.017, 80.1937, -446.934, 7, 0, 0
135.873, 80.4186, -448.072, 7, 0, 0
104.333, 45.4791, -261.13, 6, 0, 0
142.409, 83.6342, -468.565, 6, 0, 0
138.489, 80.943, -453.911, 7, 0, 0
137.844, 80.8696, -453.28, 7, 0, 0
137.803, 81.1696, -454.8, 7, 0, 0
101.981, 43.8122, -253.759, 6, 0, 0
142.597, 83.3121, -469.302, 6, 0, 0
139.395, 81.0529, -457.146, 7, 0, 0
138.711, 80.9531, -456.377, 7, 0, 0
138.591, 81.2097, -457.636, 7, 0, 0
100.462, 42.5545, -248.648, 6, 0, 0
140.011, 80.9978, -459.385, 7, 0, 0
139.042, 80.7129, -457.62, 7, 0, 0
138.725, 80.8445, -458.182, 7, 0, 0
141.161, 82.658, -468.27, 7, 0, 0
100.7, 42.1866, -248.407, 6, 0, 0
99.5734, 41.8215, -246.11, 6, 0, 0
142.298, 81.9462, -467.362, 7, 0, 0
141.372, 81.687, -465.765, 7, 0, 0
141.059, 81.8192, -466.36, 7, 0, 0
143.171, 83.4399, -475.353, 7, 0, 0
99.8275, 41.4543, -245.875, 6, 0, 0
143.901, 82.7517, -474.576, 7, 0, 0
143.679, 82.9396, -475.527, 7, 0, 0
145.446, 84.3562, -483.365, 7, 0, 0
149.718, 87.2839, -499.877, 7, 0, 0
144.356, 82.546, -476.15, 7, 0, 0
143.939, 82.6102, -476.425, 7, 0, 0
145.045, 83.6213, -481.965, 7, 0, 0
148.471, 86.0302, -495.544, 7, 0, 0
101.73, 41.737, -250.408, 6, 0, 0
146.122, 83.1259, -482.259, 7, 0, 0
145.512, 83.0666, -481.87, 7, 0, 0
146.131, 83.7713, -485.734, 7, 0, 0
148.977, 85.8162, -497.325, 7, 0, 0
147.443, 83.7357, -488.567, 7, 0, 0
147.763, 84.2415, -491.43, 7, 0, 0
149.855, 85.8125, -500.438, 7, 0, 0
148.127, 83.9764, -492.677, 7, 0, 0
149.283, 84.9708, -498.442, 7, 0, 0
152.183, 87.0059, -510.321, 7, 0, 0
149.941, 84.8884, -500.691, 7, 0, 0
152.688, 86.8162, -512.107, 7, 0, 0
153.504, 86.824, -515.041, 7, 0, 0
156.463, 88.3565, -527.442, 7, 0, 0
100.144, 39.0614, -244.57, 5, 0, 0
96.9818, 37.5384, -235.2, 6, 0, 0
97.7214, 37.688, -237.961, 5, 0, 0
99.385, 38.5176, -242.54, 5, 0, 0
97.0686, 37.1836, -236.193, 5, 0, 0
96.2341, 36.4547, -233.387, 5, 0, 0
97.7537, 36.8964, -237.38, 5, 0, 0
100.721, 37.952, -245.174, 5, 0, 0
104.258, 39.2437, -254.437, 5, 0, 0
109.045, 41.0519, -267.041, 5, 0, 0
118.149, 44.513, -290.23, 5, 0, 0
116.176, 43.8269, -285.863, 5, 0, 0
125.974, 47.5626, -310.762, 5, 0, 0
131.491, 49.5843, -325.205, 5, 0, 0
119.013, 61.8654, -396.561, 7, 0, 0
136.924, 51.4777, -339.447, 5, 0, 0
117.776, 60.7676, -392.23, 7, 0, 0
120.289, 62.3404, -402.38, 7, 0, 0
144.107, 54.0576, -358.289, 5, 0, 0
118.059, 60.5175, -393.276, 7, 0, 0
119.957, 61.7506, -401.263, 7, 0, 0
152.216, 57.0282, -379.559, 5, 0, 0
119.443, 60.8631, -398.268, 7, 0, 0
120.786, 61.7973, -404.333, 7, 0, 0
158.127, 59.0711, -395.033, 5, 0, 0
121.684, 61.8857, -407.612, 7, 0, 0
162.081, 60.2666, -405.374, 5, 0, 0
122.803, 62.0905, -411.563, 7, 0, 0
124.217, 63.0419, -418.001, 7, 0, 0
163.455, 60.5681, -410.176, 5, 0, 0
124.475, 62.5609, -417.487, 7, 0, 0
125.398, 63.251, -422.23, 7, 0, 0
167.211, 61.7024, -419.999, 5, 0, 0
126.899, 63.396, -426.116, 7, 0, 0
127.291, 63.8109, -429.022, 7, 0, 0
130.641, 64.8915, -439.426, 7, 0, 0
130.712, 65.1448, -441.263, 7, 0, 0
131.314, 65.6775, -444.961, 7, 0, 0
134.487, 66.4219, -453.21, 7, 0, 0
134.264, 66.5238, -454.076, 7, 0, 0
167.724, 61.0227, -423.702, 5, 0, 0
166.202, 60.5446, -420.852, 5, 0, 0
137.178, 67.5695, -464.733, 7, 0, 0
136.961, 67.6903, -465.591, 7, 0, 0
168.448, 60.8319, -425.592, 5, 0, 0
166.776, 60.3212, -422.366, 5, 0, 0
167.591, 60.7399, -425.544, 5, 0, 0
140.673, 68.8937, -477.51, 7, 0, 0
140.19, 68.8876, -477.446, 7, 0, 0
167.924, 60.3414, -425.355, 5, 0, 0
168.208, 60.5774, -427.193, 5, 0, 0
169.1, 60.9731, -430.598, 5, 0, 0
142.105, 69.1337, -482.911, 7, 0, 0
141.429, 69.0298, -482.163, 7, 0, 0
169.769, 60.7649, -431.285, 5, 0, 0
170.005, 60.9026, -433.05, 5, 0, 0
172.714, 61.9073, -441.074, 5, 0, 0
142.175, 68.6769, -483.311, 7, 0, 0
141.135, 68.3897, -481.236, 7, 0, 0
169.452, 60.1482, -430.53, 5, 0, 0
168.971, 60.0303, -430.45, 5, 0, 0
170.969, 60.8008, -436.647, 5, 0, 0
143.229, 68.9553, -488.88, 7, 0, 0
143.228, 69.2079, -490.632, 7, 0, 0
166.088, 58.4932, -423.033, 5, 0, 0
167.304, 59.0119, -427.224, 5, 0, 0
147.338, 70.7712, -505.77, 7, 0, 0
164.632, 57.4955, -419.308, 5, 0, 0
165.208, 57.7898, -421.851, 5, 0, 0
171.073, 59.9243, -437.925, 5, 0, 0
147.86, 70.5292, -507.902, 7, 0, 0
149.264, 71.4765, -514.948, 7, 0, 0
165.667, 57.2952, -420.904, 5, 0, 0
163.953, 56.7888, -417.601, 5, 0, 0
169.213, 58.785, -433.171, 5, 0, 0
151.502, 72.2884, -525.167, 7, 0, 0
164.862, 56.5304, -418.864, 5, 0, 0
162.785, 55.9003, -414.602, 5, 0, 0
162.431, 55.8729, -414.749, 5, 0, 0
166.984, 57.5372, -427.452, 5, 0, 0
168.457, 57.9303, -430.306, 6, 0, 0
150.388, 71.1816, -521.147, 7, 0, 0
164.015, 55.726, -416.686, 5, 0, 0
161.504, 54.938, -411.272, 5, 0, 0
167.292, 57.0314, -427.293, 6, 0, 0
146.644, 68.7816, -507.605, 7, 0, 0
147.398, 68.7922, -512.456, 7, 0, 0
143.42, 66.2996, -498.425, 7, 0, 0
139.048, 63.6237, -482.865, 7, 0, 0
149.158, 68.5978, -521.395, 7, 0, 0
135.883, 61.5488, -471.571, 7, 0, 0
144.701, 65.8684, -505.304, 7, 0, 0
133.297, 59.7578, -462.332, 7, 0, 0
140.748, 63.3988, -491.023, 7, 0, 0
134.67, 59.9668, -468.951, 7, 0, 0
128.582, 56.6168, -446.92, 7, 0, 0
139.159, 61.6294, -487.051, 7, 0, 0
123.323, 53.733, -427.898, 7, 0, 0
132.671, 58.1273, -463.457, 7, 0, 0
118.731, 51.1848, -411.192, 7, 0, 0
126.238, 54.7041, -439.943, 7, 0, 0
115.662, 49.3429, -399.962, 7, 0, 0
121.864, 52.247, -423.912, 7, 0, 0
127.213, 54.7366, -444.769, 7, 0, 0
113.636, 47.8467, -391.182, 7, 0, 0
114.44, 48.3677, -395.474, 7, 0, 0
119.641, 50.8032, -415.763, 7, 0, 0
124.248, 52.9437, -433.893, 7, 0, 0
113.293, 47.2648, -389.919, 7, 0, 0
113.475, 47.5108, -391.942, 7, 0, 0
117.706, 49.508, -408.682, 7, 0, 0
121.571, 51.3111, -424.092, 7, 0, 0
112.584, 46.5163, -387.339, 7, 0, 0
112.219, 46.5221, -387.369, 7, 0, 0
115.588, 48.1348, -400.956, 7, 0, 0
118.818, 49.6539, -414.034, 7, 0, 0
118.973, 49.8224, -415.962, 7, 0, 0
112.809, 46.1999, -388.19, 7, 0, 0
111.913, 45.9717, -386.3, 7, 0, 0
114.481, 47.225, -396.972, 7, 0, 0
117.084, 48.4599, -407.748, 7, 0, 0
116.943, 48.4904, -408.558, 7, 0, 0
117.49, 48.8992, -412.088, 7, 0, 0
113.225, 45.9536, -389.724, 7, 0, 0
111.998, 45.59, -386.637, 7, 0, 0
113.876, 46.5434, -394.802, 7, 0, 0
115.873, 47.5054, -403.358, 7, 0, 0
115.332, 47.3553, -402.66, 7, 0, 0
113.457, 45.617, -390.563, 7, 0, 0
111.858, 45.1103, -386.128, 7, 0, 0
113.026, 45.7633, -391.705, 7, 0, 0
114.425, 46.4621, -398.076, 7, 0, 0
113.623, 46.1976, -396.392, 7, 0, 0
118.475, 47.489, -409.859, 6, 0, 0
114.635, 45.712, -394.865, 7, 0, 0
112.412, 44.9517, -388.168, 7, 0, 0
112.657, 45.2083, -390.383, 7, 0, 0
113.387, 45.6152, -394.315, 7, 0, 0
112.512, 45.3214, -392.353, 7, 0, 0
119.181, 47.4157, -412.547, 6, 0, 0
118.869, 47.399, -412.557, 6, 0, 0
113.596, 45.0794, -392.532, 7, 0, 0
112.973, 44.9566, -391.59, 7, 0, 0
113.154, 45.1264, -393.53, 7, 0, 0
119.304, 47.1019, -413.066, 6, 0, 0
119.399, 47.2496, -414.615, 6, 0, 0
114.686, 45.1619, -396.569, 7, 0, 0
113.463, 44.7791, -393.464, 7, 0, 0
113.342, 44.823, -394.324, 7, 0, 0
123.48, 48.6142, -430.856, 5, 0, 0
120.734, 47.4159, -419.621, 6, 0, 0
119.361, 46.9736, -416.055, 6, 0, 0
118.484, 46.7465, -414.454, 6, 0, 0
125.82, 49.1902, -439.573, 5, 0, 0
128.105, 50.2344, -449.363, 5, 0, 0
122.3, 47.7842, -426.976, 6, 0, 0
120.905, 47.3492, -423.536, 6, 0, 0
126.25, 48.8739, -439.504, 5, 0, 0
129.229, 50.1825, -451.991, 5, 0, 0
132.115, 51.4564, -464.087, 5, 0, 0
126.64, 49.1464, -442.933, 6, 0, 0
131.172, 50.4304, -457.096, 5, 0, 0
134.752, 51.9794, -471.894, 5, 0, 0
134.372, 51.7169, -469.515, 6, 0, 0
136.901, 52.0227, -475.229, 6, 0, 0
139.918, 53.3173, -487.95, 6, 0, 0
143.737, 54.9283, -503.525, 6, 0, 0
143.342, 53.9817, -498.411, 6, 0, 0
146.409, 55.284, -511.45, 6, 0, 0
151.079, 57.2219, -530.245, 6, 0, 0
144.508, 53.872, -502.662, 6, 0, 0
147.241, 55.0276, -514.525, 6, 0, 0
152.545, 57.1893, -535.658, 6, 0, 0
147.595, 55.1623, -517.031, 7, 0, 0
144.617, 53.3702, -503.095, 6, 0, 0
147.238, 54.4722, -514.521, 6, 0, 0
153.193, 56.8597, -538.007, 6, 0, 0
148.419, 54.9111, -519.996, 7, 0, 0
146.879, 53.6547, -511.109, 6, 0, 0
149.366, 54.7014, -522.041, 6, 0, 0
151.029, 55.115, -527.038, 7, 0, 0
149.744, 54.8275, -524.572, 7, 0, 0
149.539, 54.0204, -520.45, 6, 0, 0
151.422, 54.8374, -529.218, 6, 0, 0
150.661, 54.3151, -525.436, 7, 0, 0
150.771, 53.8542, -524.915, 6, 0, 0
152.071, 54.4656, -531.605, 6, 0, 0
150.773, 53.7512, -525.909, 7, 0, 0
150.912, 53.4309, -527.433, 6, 0, 0
149.36, 52.6673, -520.908, 7, 0, 0
142.534, 49.4358, -494.187, 7, 0, 0
144.226, 50.2155, -502.174, 7, 0, 0
140.386, 48.1182, -486.399, 7, 0, 0
142.297, 48.947, -495.159, 7, 0, 0
141.214, 47.869, -489.443, 7, 0, 0
142.435, 48.4253, -495.697, 7, 0, 0
142.691, 48.6604, -498.525, 7, 0, 0
139.119, 46.5944, -481.841, 7, 0, 0
139.225, 46.7444, -483.992, 7, 0, 0
138.752, 46.7244, -484.079, 7, 0, 0
135.824, 44.9492, -469.961, 7, 0, 0
135.282, 44.8773, -469.737, 7, 0, 0
134.779, 44.8441, -469.673, 7, 0, 0
133.731, 43.8698, -464.286, 7, 0, 0
133.35, 43.8793, -464.656, 7, 0, 0
134.021, 43.4772, -465.421, 7, 0, 0
133.437, 43.4186, -465.015, 7, 0, 0
131.201, 42.2046, -456.812, 7, 0, 0
134.486, 74.9152, -366.681, 7, 0, 0
141.577, 79.5717, -388.741, 7, 0, 0
113.052, 61.4123, -303.491, 7, 0, 0
118.853, 65.2089, -321.527, 7, 0, 0
124.801, 69.1282, -340.151, 7, 0, 0
118.897, 65.3484, -323.157, 5, 0, 0
120.475, 66.4998, -328.617, 5, 0, 0
124.552, 69.1845, -341.447, 5, 0, 0
119.865, 66.1914, -326.821, 6, 0, 0
114.425, 62.2926, -309.704, 5, 0, 0
114.645, 62.6556, -311.294, 5, 0, 0
116.198, 63.7837, -316.659, 5, 0, 0
111.385, 60.0225, -300.258, 5, 0, 0
111.527, 60.3913, -301.741, 5, 0, 0
111.807, 60.7877, -303.512, 5, 0, 0
108.712, 58.2469, -292.959, 5, 0, 0
108.662, 58.4942, -293.9, 5, 0, 0
108.675, 58.7264, -294.909, 5, 0, 0
212.718, 143.841, -712.439, 8, 0, 0
205.838, 139.48, -691.025, 8, 0, 0
195.17, 132.431, -656.269, 8, 0, 0
188.299, 128.065, -634.569, 8, 0, 0
108.622, 57.1959, -290.1, 5, 0, 0
106.823, 56.3746, -285.742, 5, 0, 0
106.894, 56.6836, -286.92, 5, 0, 0
106.986, 57.0251, -288.259, 5, 0, 0
106.671, 57.1001, -288.409, 5, 0, 0
198.473, 133.418, -663.573, 7, 0, 0
186.379, 124.734, -620.746, 8, 0, 0
182.04, 122.093, -607.84, 8, 0, 0
174.686, 117.332, -584.395, 8, 0, 0
169.707, 114.257, -569.091, 8, 0, 0
108.583, 56.8062, -289.613, 5, 0, 0
106.872, 55.9982, -285.397, 5, 0, 0
105.933, 55.6755, -283.501, 5, 0, 0
106.247, 56.1152, -285.347, 5, 0, 0
106.38, 56.4661, -286.754, 5, 0, 0
106.048, 56.5198, -286.811, 5, 0, 0
176.273, 117.338, -586.665, 7, 0, 0
172.257, 114.892, -574.458, 7, 0, 0
163.864, 108.728, -544.363, 8, 0, 0
158.268, 105.162, -526.854, 8, 0, 0
154.577, 102.951, -515.872, 8, 0, 0
158.522, 106.178, -531.495, 8, 0, 0
106.773, 55.4381, -284.159, 5, 0, 0
105.908, 55.0964, -282.362, 5, 0, 0
105.2, 54.8592, -281.008, 5, 0, 0
105.028, 54.9732, -281.304, 5, 0, 0
105.44, 55.4492, -283.396, 5, 0, 0
159.958, 105.419, -530.115, 7, 0, 0
156.226, 103.137, -518.681, 7, 0, 0
148.94, 97.7314, -492.255, 8, 0, 0
144.303, 94.8154, -477.921, 8, 0, 0
141.243, 93.0097, -469.003, 8, 0, 0
105.2, 54.3307, -279.784, 5, 0, 0
104.799, 54.2513, -279.308, 5, 0, 0
104.569, 54.2898, -279.341, 5, 0, 0
104.699, 54.5782, -280.54, 5, 0, 0
150.815, 98.5611, -498.414, 7, 0, 0
147.115, 96.2837, -486.983, 7, 0, 0
140.491, 91.3472, -462.773, 8, 0, 0
136.491, 88.8689, -450.56, 8, 0, 0
133.406, 87.0215, -441.485, 8, 0, 0
104.62, 53.6086, -277.442, 5, 0, 0
104.466, 53.724, -277.796, 5, 0, 0
104.414, 53.8384, -278.321, 5, 0, 0
104.337, 53.9529, -278.794, 5, 0, 0
144.131, 93.4617, -475.271, 7, 0, 0
140.745, 91.3798, -464.86, 7, 0, 0
134.923, 86.9955, -443.382, 8, 0, 0
131.45, 84.8839, -432.928, 8, 0, 0
103.98, 52.8112, -274.887, 5, 0, 0
103.48, 52.7806, -274.324, 5, 0, 0
103.668, 53.0897, -275.647, 5, 0, 0
103.95, 53.3899, -277.126, 5, 0, 0
137.393, 88.3755, -451.946, 7, 0, 0
134.221, 86.4259, -442.204, 7, 0, 0
129.147, 82.5493, -423.277, 8, 0, 0
126.305, 80.8753, -414.952, 8, 0, 0
105.155, 53.1068, -277.472, 5, 0, 0
103.931, 52.6449, -274.815, 5, 0, 0
103.59, 52.7001, -274.692, 5, 0, 0
107.489, 55.1089, -288.023, 4, 0, 0
135.776, 86.8502, -446.33, 7, 0, 0
132.424, 84.7781, -435.951, 7, 0, 0
127.339, 80.8957, -417.041, 8, 0, 0
124.885, 79.4902, -410.049, 8, 0, 0
105.927, 53.1614, -278.871, 5, 0, 0
105.058, 52.8918, -277.242, 5, 0, 0
104.092, 52.5767, -275.321, 5, 0, 0
103.879, 52.6929, -275.555, 5, 0, 0
107.917, 55.1586, -289.332, 4, 0, 0
134.566, 85.5861, -442.11, 7, 0, 0
131.096, 83.4491, -431.321, 7, 0, 0
125.928, 79.5395, -412.143, 8, 0, 0
123.713, 78.2955, -405.972, 8, 0, 0
107.146, 53.3904, -281.416, 5, 0, 0
106.17, 53.062, -279.527, 5, 0, 0
105.414, 52.8721, -278.238, 5, 0, 0
104.597, 52.6536, -276.752, 5, 0, 0
108.03, 54.8195, -288.794, 4, 0, 0
108.748, 55.4089, -291.729, 4, 0, 0
135.812, 85.9279, -446.434, 7, 0, 0
131.986, 83.5823, -434.44, 7, 0, 0
126.773, 79.6936, -415.085, 8, 0, 0
124.797, 78.6213, -409.759, 8, 0, 0
122.069, 77.033, -401.831, 8, 0, 0
107.29, 53.1924, -281.764, 5, 0, 0
106.511, 52.9789, -280.435, 5, 0, 0
105.856, 52.8633, -279.441, 5, 0, 0
105.152, 52.7223, -278.291, 5, 0, 0
108.779, 55.0047, -290.933, 4, 0, 0
136.536, 85.8665, -448.878, 7, 0, 0
132.102, 83.1447, -434.799, 7, 0, 0
126.646, 79.1522, -414.549, 8, 0, 0
125.208, 78.4598, -411.095, 8, 0, 0
122.607, 76.9716, -403.64, 8, 0, 0
108.641, 53.4602, -284.617, 5, 0, 0
107.582, 53.0713, -282.534, 5, 0, 0
107.06, 53.0094, -281.93, 5, 0, 0
106.518, 52.9776, -281.264, 5, 0, 0
109.653, 55.0216, -292.454, 4, 0, 0
109.777, 55.3303, -293.77, 4, 0, 0
136.322, 85.2083, -448.014, 7, 0, 0
131.413, 82.1967, -432.3, 7, 0, 0
125.512, 77.9583, -410.477, 8, 0, 0
124.666, 77.6649, -409.054, 8, 0, 0
122.447, 76.44, -402.926, 8, 0, 0
109.401, 53.4533, -285.803, 5, 0, 0
108.723, 53.2459, -284.799, 5, 0, 0
108.126, 53.1109, -284.008, 5, 0, 0
107.949, 53.2491, -284.368, 5, 0, 0
107.449, 53.2581, -283.837, 5, 0, 0
110.802, 55.4257, -295.688, 4, 0, 0
138.397, 86.0768, -455.148, 7, 0, 0
132.849, 82.6666, -437.242, 7, 0, 0
126.16, 77.9469, -412.671, 8, 0, 0
125.317, 77.667, -411.252, 8, 0, 0
123.217, 76.5315, -405.543, 8, 0, 0
109.591, 53.2897, -286.242, 5, 0, 0
109.173, 53.2389, -285.961, 5, 0, 0
109.091, 53.3918, -286.6, 5, 0, 0
109.132, 53.6535, -287.578, 5, 0, 0
112.451, 55.8359, -299.316, 4, 0, 0
112.086, 55.8766, -299.266, 4, 0, 0
140.763, 87.0963, -463.346, 7, 0, 0
134.616, 83.3244, -443.385, 7, 0, 0
127.303, 78.2417, -416.645, 8, 0, 0
126.399, 77.9428, -415.003, 8, 0, 0
124.275, 76.8049, -409.232, 8, 0, 0
110.157, 53.2276, -286.977, 5, 0, 0
110.57, 53.5334, -288.833, 5, 0, 0
110.616, 53.7419, -289.832, 5, 0, 0
110.952, 54.1314, -291.656, 5, 0, 0
115.075, 56.7031, -305.61, 4, 0, 0
114.458, 56.6464, -304.879, 4, 0, 0
142.463, 87.6855, -469.299, 7, 0, 0
136.262, 83.9085, -449.169, 7, 0, 0
129.012, 78.8927, -422.651, 8, 0, 0
128.406, 78.8039, -422.05, 8, 0, 0
126.445, 77.788, -416.881, 8, 0, 0
111.326, 53.5012, -290.042, 5, 0, 0
112.287, 54.1114, -293.402, 5, 0, 0
112.679, 54.5154, -295.368, 5, 0, 0
113.098, 54.9609, -297.464, 5, 0, 0
117.338, 57.5954, -311.849, 4, 0, 0
116.853, 57.5993, -311.526, 4, 0, 0
145.055, 88.8343, -478.37, 7, 0, 0
138.774, 85.0223, -457.998, 7, 0, 0
131.439, 79.9527, -431.212, 8, 0, 0
130.939, 79.9451, -431.009, 8, 0, 0
129.2, 79.0939, -426.644, 8, 0, 0
112.794, 53.7346, -293.116, 5, 0, 0
113.52, 54.2716, -295.865, 5, 0, 0
114.752, 55.047, -299.992, 5, 0, 0
115.044, 55.4038, -301.724, 5, 0, 0
115.287, 55.7435, -303.377, 5, 0, 0
119.775, 58.5073, -318.548, 4, 0, 0
139.539, 84.9807, -460.727, 7, 0, 0
131.98, 79.7882, -433.166, 8, 0, 0
131.236, 79.6333, -432.103, 8, 0, 0
129.542, 78.8272, -427.883, 8, 0, 0
115.45, 54.6959, -300.097, 5, 0, 0
116.73, 55.5253, -304.374, 5, 0, 0
117.951, 56.3099, -308.528, 5, 0, 0
117.983, 56.5243, -309.618, 5, 0, 0
139.405, 84.4097, -460.294, 7, 0, 0
131.898, 79.3053, -432.941, 8, 0, 0
130.999, 79.0547, -431.303, 8, 0, 0
129.326, 78.2723, -427.133, 8, 0, 0
117.39, 54.9511, -304.023, 5, 0, 0
118.499, 55.7618, -308.025, 5, 0, 0
120.08, 56.7669, -313.181, 5, 0, 0
121.464, 57.643, -317.851, 5, 0, 0
121.741, 57.9866, -319.687, 5, 0, 0
141.337, 85.2037, -467.06, 7, 0, 0
134.037, 80.281, -440.478, 8, 0, 0
133.134, 80.0319, -438.807, 8, 0, 0
131.613, 79.3623, -435.163, 8, 0, 0
114.752, 52.4766, -293.767, 6, 0, 0
120.583, 55.9328, -312.104, 5, 0, 0
121.848, 56.862, -316.638, 5, 0, 0
123.198, 57.7903, -321.288, 5, 0, 0
124.737, 58.7482, -326.453, 5, 0, 0
142.606, 85.5759, -471.592, 7, 0, 0
135.878, 81.0412, -446.963, 8, 0, 0
134.915, 80.7547, -445.066, 8, 0, 0
133.873, 80.409, -443.077, 8, 0, 0
115.551, 52.12, -294.517, 6, 0, 0
116.071, 52.4799, -296.479, 6, 0, 0
123.812, 56.8605, -320.081, 5, 0, 0
125.085, 57.8344, -324.791, 5, 0, 0
114.473, 51.8793, -292.71, 7, 0, 0
141.854, 84.6629, -469.105, 7, 0, 0
140.496, 84.0546, -465.726, 7, 0, 0
134.58, 80.1081, -443.896, 8, 0, 0
133.872, 79.9775, -443.04, 8, 0, 0
114.74, 50.9711, -290.856, 6, 0, 0
114.763, 51.1234, -291.575, 6, 0, 0
115.358, 51.5156, -293.679, 6, 0, 0
111.667, 49.5324, -282.655, 7, 0, 0
112.534, 50.1578, -285.869, 7, 0, 0
113.71, 50.9459, -289.928, 7, 0, 0
141.709, 84.3759, -470.041, 7, 0, 0
135.831, 80.4573, -448.246, 8, 0, 0
134.921, 80.1939, -446.672, 8, 0, 0
111.859, 48.9001, -281.723, 6, 0, 0
112.528, 49.356, -284.166, 6, 0, 0
113.044, 49.7425, -286.165, 6, 0, 0
108.588, 47.3989, -272.945, 7, 0, 0
109.012, 47.7338, -274.767, 7, 0, 0
110.582, 48.6933, -279.862, 7, 0, 0
144.611, 85.7349, -480.245, 7, 0, 0
138.875, 81.9177, -458.865, 8, 0, 0
137.832, 81.5786, -456.817, 8, 0, 0
108.741, 46.817, -272.189, 6, 0, 0
109.088, 47.0787, -273.6, 6, 0, 0
110.317, 47.7896, -277.474, 6, 0, 0
111.254, 48.3765, -280.59, 6, 0, 0
106.383, 45.8855, -266.391, 7, 0, 0
107.297, 46.4662, -269.525, 7, 0, 0
146.235, 86.2882, -486.079, 7, 0, 0
141.511, 83.0954, -468.145, 8, 0, 0
140.647, 82.8884, -466.708, 8, 0, 0
107.07, 45.4915, -266.705, 6, 0, 0
106.456, 45.3072, -265.562, 6, 0, 0
107.324, 45.8153, -268.314, 6, 0, 0
109.048, 46.7581, -273.499, 6, 0, 0
105.822, 45.0974, -263.898, 7, 0, 0
106.088, 45.3751, -265.265, 7, 0, 0
149.565, 88.1595, -499.232, 7, 0, 0
142.954, 83.8619, -474.887, 8, 0, 0
105.977, 44.6365, -263.575, 6, 0, 0
105.906, 44.7071, -263.83, 6, 0, 0
107.095, 45.3646, -267.4, 6, 0, 0
104.967, 44.2131, -260.683, 7, 0, 0
105.992, 44.8584, -264.182, 7, 0, 0
152.967, 89.8024, -511.331, 7, 0, 0
147.237, 86.0404, -490.075, 8, 0, 0
147.334, 86.4375, -492.146, 8, 0, 0
106.09, 44.181, -262.973, 6, 0, 0
105.643, 44.1353, -262.448, 6, 0, 0
106.256, 44.531, -264.509, 6, 0, 0
104.127, 43.3741, -257.584, 7, 0, 0
104.939, 43.8751, -260.42, 7, 0, 0
105.701, 44.3826, -263.137, 7, 0, 0
152.123, 88.5836, -507.437, 8, 0, 0
152.297, 89.0318, -509.836, 8, 0, 0
107.584, 44.4199, -266.17, 6, 0, 0
106.134, 43.9133, -263.037, 6, 0, 0
106.061, 44.0322, -263.449, 6, 0, 0
107.165, 44.6559, -266.782, 6, 0, 0
104.749, 43.392, -259.232, 7, 0, 0
105.691, 43.9509, -262.414, 7, 0, 0
106.542, 44.4924, -265.335, 7, 0, 0
153.602, 89.3638, -514.55, 8, 0, 0
106.641, 43.7282, -263.618, 6, 0, 0
105.369, 43.2848, -260.887, 6, 0, 0
105.474, 43.465, -261.683, 6, 0, 0
106.79, 44.1769, -265.508, 6, 0, 0
103.729, 42.6104, -256.289, 7, 0, 0
105.295, 43.4564, -261.16, 7, 0, 0
107.341, 43.6652, -264.831, 6, 0, 0
105.651, 42.9991, -260.862, 6, 0, 0
104.95, 42.8162, -259.611, 6, 0, 0
105.552, 43.2145, -261.66, 6, 0, 0
102.381, 41.6002, -251.919, 7, 0, 0
103.176, 42.0686, -254.659, 7, 0, 0
104.935, 42.9914, -259.987, 7, 0, 0
106.933, 43.2135, -263.698, 6, 0, 0
106.02, 42.9091, -261.809, 6, 0, 0
106.255, 43.1585, -263.025, 6, 0, 0
107.804, 43.9943, -267.584, 6, 0, 0
107.316, 43.007, -264.143, 6, 0, 0
106.505, 42.7726, -262.496, 6, 0, 0
106.411, 42.8389, -262.749, 6, 0, 0
107.373, 43.4143, -265.844, 6, 0, 0
106.627, 42.2646, -261.668, 6, 0, 0
105.855, 42.0757, -260.125, 6, 0, 0
106.035, 42.2954, -261.074, 6, 0, 0
106.664, 42.6833, -263.177, 6, 0, 0
105.135, 41.1535, -257.016, 6, 0, 0
104.453, 41.0104, -255.757, 6, 0, 0
104.686, 41.2719, -256.811, 6, 0, 0
105.792, 41.9081, -260.153, 6, 0, 0
102.494, 39.7246, -249.91, 6, 0, 0
102.571, 39.906, -250.601, 6, 0, 0
103.695, 40.5557, -253.915, 6, 0, 0
101.532, 38.9268, -246.693, 6, 0, 0
100.55, 38.6339, -244.644, 6, 0, 0
101.356, 39.1229, -247.179, 6, 0, 0
102.973, 39.9763, -251.72, 6, 0, 0
103.36, 39.6736, -252.601, 5, 0, 0
99.9284, 38.0003, -242.35, 6, 0, 0
99.7134, 38.0545, -242.296, 6, 0, 0
101.164, 38.8184, -246.447, 6, 0, 0
97.1998, 37.0169, -234.82, 7, 0, 0
102.313, 38.864, -249.558, 5, 0, 0
102.92, 39.2666, -251.502, 5, 0, 0
104.257, 39.9403, -255.162, 5, 0, 0
100.014, 37.9983, -242.964, 6, 0, 0
101.426, 38.7272, -246.979, 6, 0, 0
103.866, 39.3285, -253.704, 5, 0, 0
104.445, 39.7451, -255.642, 5, 0, 0
105.845, 40.4495, -259.468, 5, 0, 0
100.889, 38.1769, -245.211, 6, 0, 0
101.901, 38.7067, -248.209, 6, 0, 0
157.344, 86.7794, -534.131, 8, 0, 0
164.75, 91.37, -563.012, 8, 0, 0
106.647, 40.3141, -261.063, 5, 0, 0
106.817, 40.57, -261.982, 5, 0, 0
107.776, 41.0803, -264.678, 5, 0, 0
102.283, 38.5485, -248.853, 6, 0, 0
145.442, 79.0764, -489.43, 8, 0, 0
149.262, 81.5575, -505.069, 8, 0, 0
155.475, 85.4173, -529.525, 8, 0, 0
109.487, 41.3071, -268.524, 5, 0, 0
109.16, 41.3545, -268.19, 5, 0, 0
109.791, 41.7229, -270.091, 5, 0, 0
138.385, 74.5403, -463.991, 8, 0, 0
141.269, 76.4546, -476.174, 8, 0, 0
146.216, 79.5553, -495.924, 8, 0, 0
151.825, 83.0367, -518.142, 8, 0, 0
113.024, 42.5847, -277.876, 5, 0, 0
112.284, 42.4587, -276.531, 5, 0, 0
112.915, 42.8298, -278.524, 5, 0, 0
132.766, 70.8519, -443.836, 8, 0, 0
134.367, 72.0171, -451.316, 8, 0, 0
137.366, 73.9873, -463.868, 8, 0, 0
141.835, 76.7892, -481.764, 8, 0, 0
118.692, 44.7607, -292.921, 5, 0, 0
117.56, 44.4799, -290.633, 5, 0, 0
129.658, 68.8689, -434.381, 8, 0, 0
131.048, 69.9162, -441.019, 8, 0, 0
134.581, 72.1623, -455.408, 8, 0, 0
129.349, 48.82, -320.237, 5, 0, 0
125.549, 47.4413, -311.062, 5, 0, 0
123.787, 46.9097, -307.178, 5, 0, 0
131.682, 69.7064, -442.691, 7, 0, 0
125.233, 65.9186, -418.454, 8, 0, 0
125.931, 66.5608, -422.535, 8, 0, 0
129.019, 68.5289, -435.279, 8, 0, 0
135.991, 72.6672, -462.315, 8, 0, 0
135.092, 50.9445, -335.36, 5, 0, 0
130.691, 49.3322, -324.643, 5, 0, 0
128.141, 48.4831, -318.713, 5, 0, 0
128.266, 67.3413, -430.661, 7, 0, 0
121.931, 63.6189, -406.678, 8, 0, 0
121.753, 63.7633, -407.521, 8, 0, 0
123.855, 65.1602, -416.628, 8, 0, 0
129.679, 68.6193, -439.421, 8, 0, 0
140.163, 52.6923, -348.718, 5, 0, 0
134.675, 50.645, -335.173, 5, 0, 0
131.269, 49.4502, -326.998, 5, 0, 0
120.358, 62.3021, -401.068, 8, 0, 0
119.285, 61.9515, -398.619, 8, 0, 0
120.376, 62.7786, -403.988, 8, 0, 0
125.627, 65.8931, -424.624, 8, 0, 0
147.071, 55.1676, -366.925, 5, 0, 0
140.294, 52.6035, -350.033, 5, 0, 0
135.679, 50.9197, -338.693, 5, 0, 0
127.329, 66.1267, -428.795, 7, 0, 0
118.758, 61.2336, -396.674, 8, 0, 0
119.221, 61.7106, -399.751, 8, 0, 0
123.879, 64.4781, -418.232, 8, 0, 0
155.893, 58.4404, -390.191, 5, 0, 0
148.152, 55.4925, -370.834, 5, 0, 0
142.206, 53.2753, -356.04, 5, 0, 0
127.697, 65.9, -430.239, 7, 0, 0
119.252, 61.08, -398.466, 8, 0, 0
119.174, 61.2583, -399.603, 8, 0, 0
122.905, 63.4986, -414.749, 8, 0, 0
128.916, 67.0098, -438.217, 8, 0, 0
162.845, 60.9086, -408.488, 5, 0, 0
154.544, 57.7428, -387.73, 5, 0, 0
147.802, 55.2128, -370.905, 5, 0, 0
127.913, 65.6014, -431.078, 7, 0, 0
119.601, 60.8509, -399.676, 8, 0, 0
119.184, 60.8385, -399.599, 8, 0, 0
122.299, 62.7255, -412.514, 8, 0, 0
127.783, 65.9213, -434.045, 8, 0, 0
168.079, 62.6316, -422.254, 5, 0, 0
160.22, 59.6657, -402.734, 5, 0, 0
153.541, 57.1775, -386.161, 5, 0, 0
127.307, 65.055, -430.084, 7, 0, 0
119.498, 60.5797, -400.616, 8, 0, 0
122.04, 62.1465, -411.442, 8, 0, 0
127.047, 65.0632, -431.222, 8, 0, 0
166.528, 61.8414, -419.414, 5, 0, 0
159.978, 59.4277, -403.286, 5, 0, 0
128.147, 65.0735, -433.124, 7, 0, 0
120.249, 60.563, -403.283, 8, 0, 0
122.202, 61.8089, -411.967, 8, 0, 0
126.786, 64.4818, -430.214, 8, 0, 0
172.457, 63.8623, -435.03, 5, 0, 0
166.046, 61.5121, -419.369, 5, 0, 0
130.263, 65.7492, -440.802, 7, 0, 0
122.28, 61.2302, -410.654, 8, 0, 0
123.946, 62.3218, -418.332, 8, 0, 0
128.327, 64.8702, -435.892, 8, 0, 0
177.124, 65.3615, -447.24, 5, 0, 0
171.522, 63.3208, -433.811, 5, 0, 0
126.116, 62.8305, -424.653, 8, 0, 0
127.501, 63.7702, -431.358, 8, 0, 0
131.487, 66.0941, -447.547, 8, 0, 0
175.6, 64.4942, -444.507, 5, 0, 0
130.198, 64.5255, -439.661, 8, 0, 0
131.361, 65.3442, -445.632, 8, 0, 0
135.029, 67.4862, -460.716, 8, 0, 0
134.199, 66.1597, -454.358, 8, 0, 0
135.267, 66.9257, -460.077, 8, 0, 0
139.028, 69.1022, -475.591, 8, 0, 0
139.773, 68.791, -476.743, 8, 0, 0
143.022, 70.6884, -490.478, 8, 0, 0
141.614, 69.2302, -483.742, 8, 0, 0
143.65, 70.4957, -493.054, 8, 0, 0
148.384, 73.1689, -512.279, 8, 0, 0
180.227, 64.5939, -457.714, 5, 0, 0
142.214, 69.0441, -486.095, 8, 0, 0
143.637, 69.9959, -493.165, 8, 0, 0
148.489, 72.7072, -512.851, 8, 0, 0
148.663, 72.0727, -511.611, 8, 0, 0
153.993, 75.0176, -533.155, 8, 0, 0
159.17, 77.0821, -552.29, 8, 0, 0
158.009, 75.9118, -548.139, 8, 0, 0
163.01, 78.7054, -568.68, 8, 0, 0
157.044, 74.8669, -544.591, 8, 0, 0
161.717, 77.4809, -563.902, 8, 0, 0
160.463, 76.2904, -559.251, 8, 0, 0
157.603, 70.6246, -559.5, 8, 0, 0
165.174, 74.5703, -589.646, 8, 0, 0
145.988, 64.5058, -516.188, 8, 0, 0
150.895, 67.1479, -536.251, 8, 0, 0
135.541, 59.0666, -477.104, 8, 0, 0
138.791, 60.8951, -490.888, 8, 0, 0
129.2, 55.608, -453.376, 8, 0, 0
131.322, 56.8937, -462.881, 8, 0, 0
125.628, 53.4714, -440.017, 8, 0, 0
126.804, 54.3066, -445.953, 8, 0, 0
123.16, 51.8564, -430.792, 8, 0, 0
123.841, 52.45, -434.876, 8, 0, 0
121.566, 50.6335, -424.834, 8, 0, 0
122.057, 51.1361, -428.226, 8, 0, 0
120.795, 50.0858, -423.521, 8, 0, 0
122.811, 50.8689, -432.397, 7, 0, 0
120.841, 49.5727, -425.131, 7, 0, 0
119.638, 48.6333, -420.744, 7, 0, 0
119.811, 48.1252, -419.975, 7, 0, 0
119.328, 48.084, -419.685, 7, 0, 0
119.706, 47.6657, -419.674, 7, 0, 0
124.822, 49.5785, -439.838, 6, 0, 0
127.022, 50.0671, -448.179, 6, 0, 0
131.29, 51.2666, -462.194, 6, 0, 0
131.004, 51.2618, -462.964, 6, 0, 0
139.64, 54.0536, -490.816, 6, 0, 0
137.834, 53.4514, -486.16, 6, 0, 0
138.298, 53.743, -489.847, 6, 0, 0
146.733, 56.1095, -514.243, 7, 0, 0
144.363, 55.2962, -507.549, 7, 0, 0
152.519, 57.7856, -535.329, 7, 0, 0
149.99, 56.9414, -528.167, 7, 0, 0
151.633, 56.989, -534.312, 7, 0, 0
152.223, 56.6241, -536.435, 7, 0, 0
153.87, 57.3716, -544.489, 7, 0, 0
152.617, 56.1667, -537.548, 7, 0, 0
154.009, 56.8114, -544.661, 7, 0, 0
155.005, 56.2445, -543.781, 7, 0, 0
151.666, 55.1618, -533.678, 7, 0, 0
152.985, 55.7944, -540.526, 7, 0, 0
154.791, 55.5331, -543.027, 7, 0, 0
151.275, 54.3997, -532.262, 7, 0, 0
152.759, 55.1133, -539.745, 7, 0, 0
154.046, 54.646, -540.451, 7, 0, 0
150.573, 53.5128, -529.789, 7, 0, 0
152.06, 54.2259, -537.248, 7, 0, 0
150.24, 52.6191, -526.497, 7, 0, 0
147.34, 51.6849, -517.818, 7, 0, 0
148.964, 52.4299, -525.672, 7, 0, 0
148.922, 51.5352, -521.662, 7, 0, 0
146.164, 50.6713, -513.432, 7, 0, 0
147.67, 51.3546, -520.812, 7, 0, 0
145.522, 49.888, -511.039, 7, 0, 0
146.368, 50.3191, -515.975, 7, 0, 0
142.077, 48.1207, -498.386, 7, 0, 0
142.256, 48.3084, -500.813, 7, 0, 0
137.857, 46.4664, -483.028, 8, 0, 0
138.735, 46.4474, -486.325, 7, 0, 0
138.317, 46.4242, -486.535, 7, 0, 0
141.804, 47.7729, -500.878, 7, 0, 0
138.021, 45.7234, -483.99, 7, 0, 0
137.028, 45.5004, -482.107, 7, 0, 0
140.569, 46.8598, -496.65, 7, 0, 0
138.757, 45.4779, -486.766, 7, 0, 0
137.255, 45.0873, -483.029, 7, 0, 0
140.445, 46.3133, -496.299, 7, 0, 0
136.985, 44.3997, -480.261, 7, 0, 0
134.963, 43.8357, -474.594, 7, 0, 0
137.538, 44.8326, -485.583, 7, 0, 0
133.299, 42.7131, -466.865, 7, 0, 0
130.786, 41.9838, -459.36, 7, 0, 0
132.739, 42.7506, -468.038, 7, 0, 0
137.374, 44.4283, -486.432, 7, 0, 0
128.801, 40.869, -452.193, 7, 0, 0
129.932, 41.3518, -457.849, 7, 0, 0
134.369, 42.9392, -475.496, 7, 0, 0
129.33, 40.5832, -454.231, 7, 0, 0
129.523, 40.7536, -456.467, 7, 0, 0
133.293, 42.1004, -471.672, 7, 0, 0
129.731, 40.3513, -457.358, 7, 0, 0
132.652, 41.407, -469.467, 7, 0, 0
130.735, 40.2066, -461.273, 7, 0, 0
132.758, 40.9702, -470.125, 7, 0, 0
130.911, 39.789, -462.075, 7, 0, 0
131.841, 40.2064, -466.95, 7, 0, 0
133.794, 40.9359, -475.505, 7, 0, 0
128.437, 38.5253, -452.937, 7, 0, 0
128.564, 38.6872, -454.882, 7, 0, 0
130.424, 39.3796, -463.14, 7, 0, 0
126.907, 37.5571, -447.365, 7, 0, 0
126.397, 37.5211, -446.99, 7, 0, 0
125.413, 36.7191, -443.531, 7, 0, 0
123.607, 35.6672, -436.922, 7, 0, 0
122.121, 34.8378, -432.243, 6, 0, 0
121.989, 34.9397, -433.277, 6, 0, 0
121.335, 66.371, -327.062, 9, 0, 0
122.366, 67.2444, -331.136, 9, 0, 0
127.76, 70.7982, -348.045, 9, 0, 0
117.404, 64.0067, -318.249, 7, 0, 0
111.335, 59.7539, -296.621, 9, 0, 0
110.396, 59.4058, -294.834, 9, 0, 0
111.324, 60.1916, -298.504, 9, 0, 0
115.497, 62.964, -311.73, 9, 0, 0
122.243, 67.338, -332.686, 9, 0, 0
130.21, 72.4958, -357.529, 9, 0, 0
120.319, 66.1436, -329.099, 5, 0, 0
124.183, 68.7309, -341.43, 5, 0, 0
119.746, 65.8743, -327.396, 6, 0, 0
104.762, 55.5137, -277.341, 9, 0, 0
104.103, 55.3246, -276.31, 9, 0, 0
104.836, 55.9734, -279.344, 9, 0, 0
108.087, 58.1571, -289.799, 9, 0, 0
113.425, 61.6366, -306.53, 9, 0, 0
119.92, 65.8521, -326.92, 9, 0, 0
114.079, 62.0059, -310.506, 5, 0, 0
115.998, 63.3824, -316.996, 5, 0, 0
119.796, 65.9243, -329.12, 5, 0, 0
123.999, 68.7022, -342.487, 5, 0, 0
127.535, 71.0466, -353.922, 5, 0, 0
100.078, 52.6293, -264.449, 9, 0, 0
100.648, 53.168, -266.967, 9, 0, 0
110.198, 59.5025, -299.752, 5, 0, 0
111.886, 60.7369, -305.566, 5, 0, 0
115.342, 63.0577, -316.663, 5, 0, 0
119.037, 65.5124, -328.517, 5, 0, 0
108.146, 57.8613, -293.251, 5, 0, 0
107.439, 57.6345, -292.008, 5, 0, 0
108.978, 58.7653, -297.355, 5, 0, 0
112.148, 60.8909, -307.572, 5, 0, 0
163.316, 110.96, -549.638, 9, 0, 0
161.943, 110.38, -546.984, 9, 0, 0
107.194, 57.0879, -290.707, 5, 0, 0
106.466, 56.8352, -289.375, 5, 0, 0
107.873, 57.8666, -294.303, 5, 0, 0
151.697, 102.084, -508.283, 9, 0, 0
150.697, 101.747, -506.807, 9, 0, 0
108.871, 57.4126, -294.045, 5, 0, 0
107.616, 56.9173, -291.38, 5, 0, 0
106.49, 56.452, -288.993, 5, 0, 0
106.074, 56.379, -288.569, 5, 0, 0
148.755, 98.7448, -497.192, 8, 0, 0
144.514, 96.0075, -480.797, 9, 0, 0
142.223, 94.7922, -474.61, 9, 0, 0
141.658, 94.7491, -474.552, 9, 0, 0
146.211, 98.2649, -492.621, 9, 0, 0
109.005, 57.0338, -293.721, 5, 0, 0
108.004, 56.6824, -291.783, 5, 0, 0
106.824, 56.2066, -289.305, 5, 0, 0
105.917, 55.8648, -287.564, 5, 0, 0
140.544, 92.4171, -468.326, 8, 0, 0
137.926, 90.8316, -457.557, 9, 0, 0
136.045, 89.8921, -452.722, 9, 0, 0
135.608, 89.9242, -453.03, 9, 0, 0
140.102, 93.3714, -470.798, 9, 0, 0
108.618, 56.3763, -291.836, 5, 0, 0
108.19, 56.3497, -291.537, 5, 0, 0
107.398, 56.0969, -290.177, 5, 0, 0
106.36, 55.6869, -288.093, 5, 0, 0
105.608, 55.4271, -286.802, 5, 0, 0
133.651, 86.7365, -442.647, 8, 0, 0
134.882, 87.9258, -448.426, 8, 0, 0
133.247, 87.0486, -441.045, 9, 0, 0
131.468, 86.1734, -436.503, 9, 0, 0
130.924, 86.1155, -436.366, 9, 0, 0
135.061, 89.2778, -452.784, 9, 0, 0
108.1, 55.6862, -289.659, 5, 0, 0
107.487, 55.5272, -288.74, 5, 0, 0
107.125, 55.5123, -288.596, 5, 0, 0
106.623, 55.4063, -288.046, 5, 0, 0
105.882, 55.1595, -286.81, 5, 0, 0
128.769, 82.8915, -425.528, 8, 0, 0
129.882, 83.9751, -430.836, 8, 0, 0
135.504, 88.2542, -451.785, 8, 0, 0
127.544, 82.9688, -422.534, 9, 0, 0
126.997, 82.8979, -422.341, 9, 0, 0
130.792, 85.7921, -437.498, 9, 0, 0
111.411, 57.2967, -300.005, 4, 0, 0
111.495, 57.5206, -301.073, 4, 0, 0
111.349, 57.6678, -301.563, 4, 0, 0
111.205, 57.8017, -302.09, 4, 0, 0
110.896, 57.8209, -302.138, 4, 0, 0
110.37, 57.7084, -301.556, 4, 0, 0
127.914, 81.891, -422.623, 8, 0, 0
129.146, 83.0457, -428.343, 8, 0, 0
135.188, 87.576, -450.776, 8, 0, 0
128.367, 83.1016, -425.536, 9, 0, 0
127.97, 83.133, -425.918, 9, 0, 0
131.655, 85.929, -440.711, 9, 0, 0
111.575, 57.2084, -300.578, 4, 0, 0
112.013, 57.6437, -302.68, 4, 0, 0
112.043, 57.8932, -303.689, 4, 0, 0
111.915, 58.0215, -304.254, 4, 0, 0
111.578, 58.0016, -304.205, 4, 0, 0
127.274, 81.0424, -420.447, 8, 0, 0
128.385, 82.1015, -425.758, 8, 0, 0
134.809, 86.8599, -449.554, 8, 0, 0
129.316, 83.3194, -429.052, 9, 0, 0
129.191, 83.5324, -430.432, 9, 0, 0
133.013, 86.4114, -445.749, 9, 0, 0
112.39, 57.4542, -302.938, 4, 0, 0
113.098, 58.0497, -305.83, 4, 0, 0
113.18, 58.3364, -307.014, 4, 0, 0
113.043, 58.4609, -307.57, 4, 0, 0
112.826, 58.5051, -307.88, 4, 0, 0
129.198, 82.2196, -428.682, 8, 0, 0
135.703, 87.0018, -452.791, 8, 0, 0
130.805, 83.8765, -434.416, 9, 0, 0
130.458, 83.9229, -435.039, 9, 0, 0
133.859, 86.4948, -448.877, 9, 0, 0
112.175, 56.9536, -301.498, 4, 0, 0
113.36, 57.7783, -305.728, 4, 0, 0
114.184, 58.4438, -308.973, 4, 0, 0
114.179, 58.6809, -309.928, 4, 0, 0
114.112, 58.841, -310.706, 4, 0, 0
114.366, 59.1552, -312.394, 4, 0, 0
129.33, 81.8521, -429.084, 8, 0, 0
135.525, 86.3856, -452.114, 8, 0, 0
130.794, 83.3801, -434.303, 9, 0, 0
130.396, 83.3873, -434.762, 9, 0, 0
133.347, 85.6352, -447.017, 9, 0, 0
138.895, 89.6533, -468.425, 9, 0, 0
112.921, 57.1431, -303.633, 4, 0, 0
114.211, 58.0146, -308.166, 4, 0, 0
114.899, 58.5973, -311.044, 4, 0, 0
114.749, 58.7432, -311.602, 4, 0, 0
114.883, 59.0043, -312.966, 4, 0, 0
115.768, 59.677, -316.483, 4, 0, 0
128.951, 81.1344, -427.603, 8, 0, 0
134.643, 85.2836, -448.889, 8, 0, 0
130.075, 82.4048, -431.649, 9, 0, 0
130.233, 82.8026, -434.091, 9, 0, 0
133.625, 85.345, -447.966, 9, 0, 0
139.772, 89.7394, -471.582, 9, 0, 0
113.332, 56.92, -303.847, 4, 0, 0
113.775, 57.3601, -306.046, 4, 0, 0
115.014, 58.1855, -310.442, 4, 0, 0
115.445, 58.6124, -312.601, 4, 0, 0
115.216, 58.7042, -312.953, 4, 0, 0
115.707, 59.1573, -315.353, 4, 0, 0
117.309, 60.2397, -320.955, 4, 0, 0
129.288, 80.8964, -428.692, 8, 0, 0
134.379, 84.6049, -447.889, 8, 0, 0
129.843, 81.7625, -430.774, 9, 0, 0
130.424, 82.4516, -434.727, 9, 0, 0
134.399, 85.3844, -450.719, 9, 0, 0
141.377, 90.3224, -477.381, 9, 0, 0
114.377, 57.2205, -306.754, 4, 0, 0
114.818, 57.6555, -308.957, 4, 0, 0
115.917, 58.4054, -312.98, 4, 0, 0
116.15, 58.7246, -314.611, 4, 0, 0
116.044, 58.8866, -315.35, 4, 0, 0
117.168, 59.693, -319.592, 4, 0, 0
119.438, 61.1578, -327.152, 4, 0, 0
129.36, 80.4853, -428.912, 8, 0, 0
133.722, 83.6827, -445.544, 8, 0, 0
129.351, 80.9621, -428.954, 9, 0, 0
130.193, 81.8222, -433.822, 9, 0, 0
134.367, 84.8772, -450.542, 9, 0, 0
141.806, 90.1169, -478.897, 9, 0, 0
116.535, 57.876, -311.755, 4, 0, 0
116.381, 58.0045, -312.334, 4, 0, 0
116.675, 58.3754, -314.152, 4, 0, 0
117.433, 58.9597, -317.255, 4, 0, 0
117.634, 59.2731, -318.844, 4, 0, 0
131.161, 81.2069, -435.319, 8, 0, 0
134.899, 83.9756, -449.789, 8, 0, 0
130.863, 81.5148, -434.285, 9, 0, 0
131.877, 82.4969, -439.767, 9, 0, 0
136.024, 85.5291, -456.426, 9, 0, 0
143.501, 90.7845, -484.975, 9, 0, 0
118.915, 58.813, -318.366, 4, 0, 0
119.172, 59.1641, -320.128, 4, 0, 0
119.311, 59.4673, -321.559, 4, 0, 0
119.675, 59.8547, -323.6, 4, 0, 0
134.29, 82.7483, -446.466, 8, 0, 0
137.836, 85.3915, -460.329, 8, 0, 0
134.429, 83.4064, -446.977, 9, 0, 0
135.575, 84.4934, -452.973, 9, 0, 0
139.63, 87.4753, -469.358, 9, 0, 0
147.24, 92.8113, -498.469, 9, 0, 0
121.427, 59.528, -324.275, 4, 0, 0
121.289, 59.6809, -324.947, 4, 0, 0
121.787, 60.1559, -327.426, 4, 0, 0
121.877, 60.4358, -328.774, 4, 0, 0
134.287, 82.237, -446.487, 8, 0, 0
137.633, 84.7387, -459.658, 8, 0, 0
135.06, 83.3169, -449.199, 9, 0, 0
136.837, 84.8211, -457.459, 9, 0, 0
141.334, 88.0997, -475.463, 9, 0, 0
149.785, 93.9823, -507.653, 9, 0, 0
121.768, 58.5604, -321.235, 5, 0, 0
125.158, 60.7632, -333.401, 4, 0, 0
124.455, 60.68, -332.565, 4, 0, 0
124.351, 60.8702, -333.392, 4, 0, 0
124.841, 61.3555, -335.918, 4, 0, 0
124.923, 61.6478, -337.307, 4, 0, 0
133.377, 81.2073, -443.287, 8, 0, 0
136.023, 83.2181, -453.974, 8, 0, 0
133.923, 82.0681, -445.15, 9, 0, 0
136.409, 84.0144, -455.914, 9, 0, 0
141.477, 87.6428, -475.957, 9, 0, 0
150.486, 93.8662, -510.159, 9, 0, 0
124.982, 59.7351, -329.808, 5, 0, 0
129.017, 62.3007, -343.901, 4, 0, 0
128.499, 62.3528, -343.658, 4, 0, 0
128.511, 62.6422, -344.885, 4, 0, 0
129.198, 63.2652, -348.039, 4, 0, 0
135.529, 82.1968, -450.877, 8, 0, 0
137.364, 83.6543, -458.736, 8, 0, 0
134.935, 82.2525, -448.785, 9, 0, 0
137.548, 84.257, -459.982, 9, 0, 0
142.322, 87.6607, -478.977, 9, 0, 0
150.68, 93.4159, -510.836, 9, 0, 0
128.583, 60.749, -338.185, 5, 0, 0
132.953, 63.4821, -353.304, 4, 0, 0
132.273, 63.4555, -352.709, 4, 0, 0
131.698, 63.5271, -352.416, 4, 0, 0
131.905, 63.9404, -354.263, 4, 0, 0
132.982, 64.7779, -358.561, 4, 0, 0
138.33, 83.5967, -460.72, 8, 0, 0
139.869, 84.8549, -467.568, 8, 0, 0
136.847, 83.0229, -455.584, 9, 0, 0
139.536, 85.0708, -467.065, 9, 0, 0
143.798, 88.1312, -484.253, 9, 0, 0
151.35, 93.3227, -513.245, 9, 0, 0
121.823, 55.4606, -313.568, 7, 0, 0
131.714, 61.6588, -346.165, 5, 0, 0
136.91, 64.8543, -363.815, 4, 0, 0
135.753, 64.6417, -362.057, 4, 0, 0
135.269, 64.8053, -362.164, 4, 0, 0
135.825, 65.4237, -365.088, 4, 0, 0
137.27, 66.456, -370.49, 4, 0, 0
119.459, 55.0182, -308.974, 9, 0, 0
139.031, 83.6157, -463.145, 8, 0, 0
140.493, 84.8278, -469.724, 8, 0, 0
137.261, 82.8037, -457.07, 9, 0, 0
140.282, 85.0625, -469.726, 9, 0, 0
144.536, 88.1201, -486.902, 9, 0, 0
152.082, 93.2829, -515.924, 9, 0, 0
120.624, 54.2664, -309.462, 7, 0, 0
122.018, 55.1075, -313.933, 7, 0, 0
141.171, 66.4392, -375.06, 4, 0, 0
140.567, 66.5686, -375.007, 4, 0, 0
140.475, 84.0701, -468.199, 8, 0, 0
141.242, 84.8417, -472.348, 8, 0, 0
137.593, 82.5175, -458.362, 9, 0, 0
140.706, 84.8234, -471.317, 9, 0, 0
144.821, 87.7839, -487.992, 9, 0, 0
152.271, 92.8615, -516.699, 9, 0, 0
117.46, 51.9896, -299.306, 7, 0, 0
119.206, 53.0413, -304.823, 7, 0, 0
116.448, 51.4905, -296.419, 8, 0, 0
143.6, 85.5814, -479.141, 8, 0, 0
137.247, 81.5412, -455.581, 9, 0, 0
139.143, 83.0149, -463.941, 9, 0, 0
142.472, 85.4464, -477.663, 9, 0, 0
146.549, 88.3714, -494.219, 9, 0, 0
153.652, 93.2056, -521.719, 9, 0, 0
114.388, 49.7764, -289.332, 7, 0, 0
116.373, 50.9809, -295.601, 7, 0, 0
114.242, 49.7986, -289.049, 8, 0, 0
146.884, 87.1846, -490.703, 8, 0, 0
139.875, 82.7227, -464.89, 9, 0, 0
141.524, 84.0341, -472.396, 9, 0, 0
144.968, 86.5256, -486.544, 9, 0, 0
148.941, 89.3748, -502.752, 9, 0, 0
155.505, 93.8532, -528.369, 9, 0, 0
112.705, 48.3881, -283.587, 7, 0, 0
114.323, 49.3907, -288.768, 7, 0, 0
112.262, 48.2702, -282.366, 8, 0, 0
150.014, 88.6633, -501.804, 8, 0, 0
142.877, 84.1246, -475.579, 9, 0, 0
144.31, 85.303, -482.362, 9, 0, 0
147.787, 87.8055, -496.657, 9, 0, 0
151.585, 90.5316, -512.283, 9, 0, 0
157.889, 94.8277, -537.026, 9, 0, 0
112.367, 47.7126, -281.773, 7, 0, 0
113.248, 48.325, -284.807, 7, 0, 0
111.256, 47.2518, -278.416, 8, 0, 0
148.187, 86.9583, -494.555, 9, 0, 0
149.923, 88.3421, -502.506, 9, 0, 0
154.184, 91.3322, -519.684, 9, 0, 0
158.399, 94.3043, -536.909, 9, 0, 0
164.671, 98.5619, -561.661, 9, 0, 0
111.848, 47.1045, -280.018, 7, 0, 0
113.04, 47.8574, -283.819, 7, 0, 0
155.144, 90.7985, -519.41, 9, 0, 0
157.163, 92.372, -528.459, 9, 0, 0
162.242, 95.8572, -548.656, 9, 0, 0
166.717, 98.9606, -566.931, 9, 0, 0
171.907, 102.517, -587.909, 9, 0, 0
112.75, 47.2361, -282.342, 7, 0, 0
111.735, 46.6963, -278.591, 8, 0, 0
159.236, 92.8353, -534.036, 9, 0, 0
160.864, 94.1709, -541.749, 9, 0, 0
165.977, 97.6507, -562.108, 9, 0, 0
170.33, 100.637, -579.985, 9, 0, 0
174.63, 103.609, -597.798, 9, 0, 0
112.456, 46.5994, -280.788, 7, 0, 0
113.933, 47.4847, -285.334, 7, 0, 0
163.554, 94.9616, -549.461, 9, 0, 0
165.032, 96.2171, -556.735, 9, 0, 0
170.553, 99.942, -578.644, 9, 0, 0
175.468, 103.26, -598.615, 9, 0, 0
180.048, 106.389, -617.51, 9, 0, 0
111.697, 45.9186, -278.399, 7, 0, 0
110.56, 45.332, -274.187, 8, 0, 0
174.486, 87.0538, -506.555, 5, 0, 0
180.497, 90.4251, -526.173, 5, 0, 0
174.138, 101.558, -591.719, 9, 0, 0
179.367, 105.051, -612.88, 9, 0, 0
183.996, 108.187, -631.987, 9, 0, 0
189.92, 112.201, -655.896, 9, 0, 0
110.302, 44.6342, -272.915, 7, 0, 0
110.745, 44.9596, -274.736, 7, 0, 0
112.236, 45.7741, -279.336, 7, 0, 0
113.282, 46.3981, -282.578, 7, 0, 0
167.035, 82.0914, -481.46, 5, 0, 0
170.428, 84.1467, -492.937, 5, 0, 0
175.863, 87.2143, -510.67, 5, 0, 0
182.255, 90.7463, -531.461, 5, 0, 0
110.627, 44.425, -273.186, 7, 0, 0
110.937, 44.6767, -274.607, 7, 0, 0
111.884, 45.2305, -277.735, 7, 0, 0
113.901, 46.2853, -283.706, 7, 0, 0
168.391, 82.2865, -485.559, 5, 0, 0
171.864, 84.3659, -497.26, 5, 0, 0
177.085, 87.3048, -514.352, 5, 0, 0
109.016, 43.2904, -268.087, 7, 0, 0
109.55, 43.6419, -270.137, 7, 0, 0
110.943, 44.3885, -274.441, 7, 0, 0
112.826, 45.3695, -280.035, 7, 0, 0
115.586, 46.7607, -287.98, 7, 0, 0
168.806, 81.9874, -486.942, 5, 0, 0
171.76, 83.8026, -497.065, 5, 0, 0
175.959, 86.221, -511.074, 5, 0, 0
108.396, 42.631, -265.72, 7, 0, 0
107.535, 42.343, -264.006, 7, 0, 0
108.371, 42.809, -266.777, 7, 0, 0
110.563, 43.9047, -273.148, 7, 0, 0
113.543, 45.385, -281.66, 7, 0, 0
167.631, 80.9492, -483.55, 5, 0, 0
169.774, 82.3517, -491.206, 5, 0, 0
173.028, 84.2886, -502.347, 5, 0, 0
106.823, 41.566, -260.862, 7, 0, 0
106.284, 41.4322, -260.024, 7, 0, 0
105.837, 41.3134, -259.339, 7, 0, 0
107.007, 41.9039, -262.892, 7, 0, 0
109.619, 43.1648, -270.273, 7, 0, 0
109.413, 42.9321, -268.617, 8, 0, 0
167.388, 80.3714, -482.853, 5, 0, 0
169.077, 81.5412, -489.118, 5, 0, 0
172.02, 83.3105, -499.306, 5, 0, 0
198.162, 113.793, -686.517, 9, 0, 0
201.395, 116.103, -700.86, 9, 0, 0
104.297, 40.185, -254.076, 7, 0, 0
104.129, 40.2217, -254.219, 7, 0, 0
104.183, 40.3137, -254.799, 7, 0, 0
105.758, 41.0626, -259.325, 7, 0, 0
108.635, 42.4219, -267.327, 7, 0, 0
107.802, 41.9219, -264.136, 8, 0, 0
168.496, 80.4552, -486.178, 5, 0, 0
169.864, 81.4581, -491.483, 5, 0, 0
172.468, 83.0469, -500.629, 5, 0, 0
193.71, 110.407, -670.373, 9, 0, 0
195.327, 111.72, -678.79, 9, 0, 0
102.565, 39.1596, -249.432, 7, 0, 0
102.623, 39.3, -250.172, 7, 0, 0
103.181, 39.6069, -252.026, 7, 0, 0
105.122, 40.5045, -257.444, 7, 0, 0
104.773, 40.145, -255.335, 8, 0, 0
167.839, 79.6577, -484.306, 5, 0, 0
169.101, 80.5881, -489.323, 5, 0, 0
190.465, 89.0981, -542.397, 9, 0, 0
193.444, 109.59, -669.431, 9, 0, 0
194.381, 110.488, -675.414, 9, 0, 0
101.878, 38.4261, -246.759, 7, 0, 0
101.151, 38.2742, -245.603, 7, 0, 0
101.357, 38.4739, -246.718, 7, 0, 0
102.396, 38.9828, -249.773, 7, 0, 0
104.462, 39.927, -255.447, 7, 0, 0
103.725, 39.4132, -252.46, 8, 0, 0
201.673, 93.2051, -572.355, 9, 0, 0
194.452, 90.0857, -552.613, 9, 0, 0
190.368, 88.4172, -542.259, 9, 0, 0
190.28, 107.103, -657.922, 9, 0, 0
190.976, 107.85, -663.017, 9, 0, 0
100.559, 37.6088, -243.17, 7, 0, 0
99.8029, 37.4309, -241.898, 7, 0, 0
100.061, 37.6366, -243.082, 7, 0, 0
101.394, 38.2621, -246.827, 7, 0, 0
99.6266, 37.2082, -240.7, 8, 0, 0
102.03, 38.4049, -247.791, 8, 0, 0
200.241, 91.8512, -568.205, 9, 0, 0
193.471, 88.9608, -549.823, 9, 0, 0
189.627, 87.4209, -540.183, 9, 0, 0
180.146, 100.562, -621.025, 9, 0, 0
180.379, 101.017, -624.293, 9, 0, 0
181.894, 102.274, -632.29, 9, 0, 0
105.45, 39.6539, -257.107, 6, 0, 0
99.5131, 36.9226, -240.28, 7, 0, 0
98.7513, 36.7328, -238.929, 7, 0, 0
99.1228, 36.9746, -240.326, 7, 0, 0
100.37, 37.5557, -243.806, 7, 0, 0
97.6279, 36.0943, -235.219, 8, 0, 0
100.706, 37.5846, -244.116, 8, 0, 0
198.646, 90.5224, -563.432, 9, 0, 0
191.656, 87.5344, -544.368, 9, 0, 0
187.783, 85.9803, -534.616, 9, 0, 0
169.667, 94.1933, -585.035, 9, 0, 0
171.496, 95.5863, -594.067, 9, 0, 0
106.351, 39.6942, -259.056, 6, 0, 0
105.687, 39.5135, -257.664, 6, 0, 0
99.1714, 36.5491, -239.238, 7, 0, 0
98.6331, 36.4552, -238.437, 7, 0, 0
99.0007, 36.6934, -239.815, 7, 0, 0
99.8261, 37.084, -242.22, 7, 0, 0
96.4065, 35.3313, -231.835, 8, 0, 0
198.164, 89.69, -561.969, 9, 0, 0
190.782, 86.5457, -541.711, 9, 0, 0
164.795, 91.1316, -569.289, 9, 0, 0
115.036, 43.4316, -283.643, 5, 0, 0
107.721, 40.1405, -263.047, 6, 0, 0
107.573, 40.1779, -263.104, 6, 0, 0
100.417, 37.0192, -243.099, 7, 0, 0
100.544, 37.147, -243.883, 7, 0, 0
197.676, 88.8427, -560.492, 9, 0, 0
190.328, 85.7282, -540.334, 9, 0, 0
159.564, 87.5739, -549.909, 9, 0, 0
119.754, 45.2155, -296.45, 5, 0, 0
119.57, 45.1495, -295.859, 5, 0, 0
111.842, 41.6848, -274.037, 6, 0, 0
111.725, 41.7353, -274.229, 6, 0, 0
197.187, 88.0018, -558.997, 9, 0, 0
153.089, 83.3083, -526.005, 9, 0, 0
124.871, 47.1965, -310.164, 5, 0, 0
124.389, 46.9894, -308.786, 5, 0, 0
115.965, 43.2247, -285.067, 6, 0, 0
115.806, 43.2549, -285.208, 6, 0, 0
198.029, 87.7961, -561.453, 9, 0, 0
190.554, 84.6622, -540.926, 9, 0, 0
166.87, 76.3944, -483.683, 5, 0, 0
144.737, 77.9839, -495.335, 9, 0, 0
127.939, 48.2426, -318.354, 5, 0, 0
127.086, 47.8675, -316.021, 5, 0, 0
118.248, 43.9304, -291.207, 6, 0, 0
199.673, 87.9515, -566.372, 9, 0, 0
166.142, 75.2883, -480.361, 5, 0, 0
167.08, 75.97, -484.476, 5, 0, 0
138.596, 73.989, -472.79, 9, 0, 0
129.712, 48.6647, -323.071, 5, 0, 0
128.762, 48.2618, -320.52, 5, 0, 0
119.764, 44.2859, -295.265, 6, 0, 0
165.131, 74.0827, -476.254, 5, 0, 0
165.845, 74.6229, -479.653, 5, 0, 0
166.751, 75.2873, -483.671, 5, 0, 0
132.697, 49.5692, -331.028, 5, 0, 0
131.613, 49.1349, -328.182, 5, 0, 0
164.617, 73.3329, -474.862, 5, 0, 0
165.431, 73.9109, -478.566, 5, 0, 0
166.48, 74.631, -483.006, 5, 0, 0
167.497, 75.3501, -487.432, 5, 0, 0
138.178, 51.5176, -345.7, 5, 0, 0
136.904, 51.0241, -342.455, 5, 0, 0
164.209, 72.6577, -473.739, 5, 0, 0
165.25, 73.3186, -478.145, 5, 0, 0
166.818, 74.245, -484.141, 5, 0, 0
168.134, 75.0801, -489.476, 5, 0, 0
143.929, 53.5372, -361.102, 5, 0, 0
142.823, 53.1333, -358.439, 5, 0, 0
166.053, 73.1319, -480.696, 5, 0, 0
167.781, 74.1098, -487.164, 5, 0, 0
169.04, 74.9062, -492.326, 5, 0, 0
150.691, 55.9389, -379.221, 5, 0, 0
149.256, 55.4202, -375.816, 5, 0, 0
168.733, 73.937, -490.163, 5, 0, 0
158.15, 58.6269, -399.218, 5, 0, 0
155.573, 57.6575, -392.914, 5, 0, 0
165.376, 61.1904, -418.515, 5, 0, 0
161.983, 59.901, -410.161, 5, 0, 0
172.744, 63.7541, -438.115, 5, 0, 0
179.265, 65.8828, -455.407, 5, 0, 0
180.029, 65.7512, -458.452, 5, 0, 0
184.799, 65.29, -474.265, 5, 0, 0
178.561, 62.7038, -456.803, 6, 0, 0
172.366, 60.3299, -441.096, 6, 0, 0
180.493, 62.9675, -462.167, 6, 0, 0
174.372, 60.6509, -446.763, 6, 0, 0
173.789, 60.4487, -445.894, 6, 0, 0
178.667, 62.3964, -459.509, 7, 0, 0
168.774, 81.4116, -589.141, 9, 0, 0
182.978, 63.4311, -468.998, 6, 0, 0
177.645, 61.4523, -455.828, 6, 0, 0
177.803, 61.5671, -457.099, 6, 0, 0
